-0.491976982637 0.641513983642 0.111290998446
-0.468766983439 0.618725984429 0.128758997842
-0.449159984117 0.588280985482 0.142287997374
-0.401100985779 0.593477985302 0.125829997943
-0.350838987517 0.595676985226 0.118355998201
-0.299673989286 0.596542985196 0.115307998307
-0.248734991047 0.596856985186 0.114187998345
-0.198019992801 0.596973985182 0.11376899836
-0.147395994551 0.59702798518 0.113576998367
-0.0968059963 0.597058985179 0.11346599837
-0.0462279980488 0.597076985178 0.113400998373
0.00434700020256 0.597083985178 0.113372998374
0.0549209984539 0.597080985178 0.113382998373
0.105496996705 0.597067985178 0.113430998372
0.156089994956 0.597043985179 0.113515998369
0.206764993204 0.59701498518 0.113621998365
0.25778399144 0.596981985181 0.113734998361
0.309943989636 0.596923985183 0.113930998354
0.365553987714 0.596626985194 0.11491099832
0.447362984885 0.595184985243 0.120147998139
0.459568984463 0.614267984584 0.113120998382
0.479119983787 0.634420983887 0.106868998599
0.48656398353 0.631057984003 0.141563997399
0.629547978586 0.631230983997 0.125464997956
-0.611821978493 0.640553983675 0.131678997741
-0.575786979739 0.656120983137 0.120973998111
-0.52978298133 0.658481983055 0.108413998545
0.510581982699 0.650291983338 0.119088998176
0.546940981442 0.660209982995 0.110745998464
0.587698980033 0.65283198325 0.125420997957
-0.626706977979 -0.621108972703 0.156114996896
-0.602160978827 -0.631868972331 0.168537996466
-0.572657979847 -0.643384971933 0.161058996725
-0.534427981169 -0.646438971827 0.14992799711
-0.510075982011 -0.631274972351 0.17218499634
0.528589982077 -0.64231397197 0.16091899673
0.493981983273 -0.632197972319 0.150355997095
0.562260980912 -0.649982971704 0.147492997194
0.602358979526 -0.63884497209 0.149217997134
0.584057980159 -0.636279972178 0.176318996197
-0.613556978433 -0.616453972864 0.196896995486
-0.654013977034 -0.591184973737 0.162130996688
-0.471403983348 -0.606577973205 0.169677996427
-0.451420984039 -0.578647974171 0.169144996445
-0.450555984069 -0.567907974542 0.195688995528
-0.401424985768 -0.581827974061 0.160998996727
-0.351128987507 -0.583681973997 0.155901996903
-0.299771989282 -0.584400973972 0.153881996973
-0.248740991047 -0.584638973964 0.153205996996
-0.198006992801 -0.584730973961 0.152944997005
-0.147388994551 -0.584783973959 0.152792997011
-0.0968039963001 -0.584821973957 0.152684997014
-0.0462289980488 -0.584847973957 0.152610997017
0.00434400020266 -0.584859973956 0.152574997018
0.0549159984541 -0.584858973956 0.152578997018
0.105487996706 -0.584844973957 0.152618997017
0.156064994957 -0.584819973957 0.152690997014
0.206658993208 -0.584782973959 0.152797997011
0.257321991456 -0.584719973961 0.152973997004
0.308172989698 -0.584555973967 0.153438996988
0.359251987932 -0.583985973986 0.155053996933
0.40903598621 -0.582116974051 0.160260996752
0.449155984823 -0.576313974252 0.175400996229
0.472941984001 -0.606353973213 0.181276996026
0.615074979086 -0.62264597265 0.178310996128
0.650652977856 -0.592540973691 0.173437996297
-0.671860976417 -0.542167975432 0.183734995941
-0.414900985302 -0.567990974539 0.195660995529
-0.36521198702 -0.569492974487 0.192183995649
-0.31402498879 -0.57028997446 0.190315995713
-0.263005990554 -0.570592974449 0.189602995738
-0.212257992308 -0.570714974445 0.189313995748
-0.161635994059 -0.570785974443 0.189147995754
-0.111052995807 -0.570836974441 0.189027995758
-0.0604789975561 -0.57087297444 0.188942995761
-0.00990799930457 -0.570892974439 0.188893995763
0.0406629989469 -0.570894974439 0.188887995763
0.0912349971984 -0.570880974439 0.188921995762
0.14180799545 -0.57085397444 0.188985995759
0.192390993701 -0.570817974442 0.189070995756
0.243002991951 -0.570770974443 0.189181995753
0.293685990199 -0.570687974446 0.189376995746
0.344429988444 -0.570455974454 0.189918995727
0.394616986709 -0.569804974477 0.191432995675
0.448217984856 -0.568608974518 0.193947995588
0.671039977151 -0.54569897531 0.182811995973
-0.675564976289 -0.48351897746 0.202358995297
0.675512976997 -0.491889977171 0.188428995779
-0.658120976892 -0.444870978796 0.166811996526
-0.597285978996 -0.446447978742 0.163554996639
-0.542053980905 -0.446748978731 0.162911996661
-0.48899298274 -0.446827978729 0.162739996667
-0.437660984515 -0.446854978728 0.162682996669
-0.386939986269 -0.446817978729 0.162763996666
-0.33628398802 -0.446730978732 0.16294799666
-0.285593989773 -0.446631978735 0.163153996652
-0.234930991524 -0.446546978738 0.163331996646
-0.184317993274 -0.446476978741 0.163474996641
-0.133735995023 -0.446422978743 0.163587996637
-0.0831649967717 -0.446381978744 0.163672996635
-0.0325969985201 -0.446356978745 0.163723996633
0.0179699997315 -0.446351978745 0.163733996632
0.0685359979832 -0.446367978745 0.163700996634
0.119102996235 -0.446400978743 0.163632996636
0.169669994486 -0.446444978742 0.163541996639
0.220235992738 -0.44649597874 0.163435996643
0.27080599099 -0.446547978738 0.163326996646
0.321382989241 -0.446597978737 0.16322299665
0.371995987491 -0.446649978735 0.163114996654
0.422757985736 -0.446701978733 0.163002996658
0.47411698396 -0.446693978733 0.163014996657
0.527390982118 -0.446452978742 0.16350899664
0.585049980125 -0.445675978768 0.165150996583
0.657826977608 -0.443969978827 0.168767996458
-0.659235976854 0.440331990598 0.175491996226
-0.67583097628 0.489890988884 0.17103199638
-0.610193978549 0.443781990478 0.168936996453
-0.557043980387 0.445633990414 0.165158996583
-0.50432598221 0.446420990387 0.163539996639
-0.452951983986 0.446657990379 0.163053996656
-0.402192985741 0.446680990378 0.163007996658
-0.351555987492 0.446640990379 0.163096996654
-0.300900989243 0.446579990381 0.16322299665
-0.250257990994 0.446515990384 0.163355996645
-0.199651992744 0.446454990386 0.163481996641
-0.149071994493 0.446402990388 0.163588996637
-0.0985009962414 0.446361990389 0.163673996634
-0.0479329979898 0.44633799039 0.163723996633
0.00263400026179 0.44633299039 0.163733996632
0.0531999985134 0.446348990389 0.163699996634
0.103766996765 0.446382990388 0.163631996636
0.154333995017 0.446428990387 0.163534996639
0.204900993268 0.446488990385 0.163410996644
0.25546899152 0.446561990382 0.163259996649
0.306044989771 0.446645990379 0.163083996655
0.356644988022 0.446731990376 0.162903996661
0.407342986269 0.446810990374 0.162737996667
0.458454984502 0.446932990369 0.162475996676
0.511082982682 0.447374990354 0.161529996709
0.568374980701 0.448903990301 0.158234996823
0.657826977608 0.45326499015 0.148794997149
0.675753976988 0.488873988919 0.179382996091
-0.673167976372 0.542200987075 0.185744995871
0.672136977113 0.546652986921 0.182410995987
-0.647707977252 0.58746898551 0.200754995352
-0.411560985417 0.580313985758 0.165058996587
-0.449303984112 0.575205985934 0.178078996136
-0.446151984221 0.566757986226 0.19821699544
-0.380700986484 0.569106986145 0.192988995621
-0.364221987054 0.583033985664 0.157658996842
-0.329791988244 0.570147986109 0.190600995703
-0.313795988798 0.584155985625 0.154522996951
-0.278819990007 0.570549986095 0.189659995736
-0.262968990555 0.584554985611 0.15339199699
-0.228052991762 0.57070098609 0.189303995748
-0.212260992308 0.584697985606 0.152984997004
-0.177417993513 0.570772986087 0.189134995754
-0.161641994058 0.584762985604 0.152797997011
-0.126830995262 0.570819986086 0.189021995758
-0.111055995807 0.584803985602 0.152683997014
-0.0762559970106 0.570853986085 0.188939995761
-0.060480997556 0.584828985601 0.152610997017
-0.0256839987591 0.570873986084 0.188893995763
-0.00990799930457 0.584840985601 0.152575997018
0.0248869994924 0.570874986084 0.188889995763
0.0406639989469 0.584838985601 0.152580997018
0.0754589977438 0.570858986085 0.188929995761
0.0912379971983 0.584823985602 0.152625997016
0.126034995995 0.570825986086 0.189007995759
0.141819995449 0.584795985603 0.152706997014
0.176638994246 0.570780986087 0.189114995755
0.192447993699 0.584756985604 0.15281599701
0.227360992492 0.570727986089 0.189239995751
0.243268991942 0.584712985605 0.152941997006
0.278502990724 0.570663986091 0.189390995745
0.294680990164 0.584648985608 0.153124996999
0.330702988919 0.570513986096 0.189746995733
0.347165988349 0.584454985614 0.15367799698
0.383805987083 0.570152986109 0.190633995702
0.39892798656 0.583772985638 0.155588996914
0.42178398577 0.571419986065 0.187392995814
0.448133984858 0.580466985752 0.164420996609
0.447359984885 0.567540986199 0.196362995504
0.646595977997 0.596322985204 0.182033996
-0.612853978457 0.619726984395 0.192774995628
-0.608776978598 0.632153983965 0.162973996659
-0.587729979326 0.633101983932 0.1849229959
-0.500491982342 0.637270983788 0.146592997225
-0.474708983234 0.607854984805 0.181864996006
0.466647984218 0.605491984887 0.169260996441
0.505188982886 0.630022984039 0.1762369962
0.617597978999 0.62854198409 0.159343996784
0.593129979845 0.638552983744 0.16555099657
0.607786979338 0.620086984382 0.200434995363
-0.581091979556 0.64416598355 0.158099996827
-0.542479980891 0.64791998342 0.153157996998
0.519795982381 0.641928983627 0.157508996848
0.553856981203 0.649455983367 0.15281099701
-0.579352979616 -0.632017972326 0.188573995774
-0.544856980809 -0.635375972209 0.186033995861
0.514406982567 -0.630679972372 0.182282995991
0.549809981343 -0.636756972162 0.18578399587
-0.603251978789 -0.60064797341 0.243254993883
-0.646108977308 -0.576910974231 0.222430994603
-0.560293980275 -0.621542972688 0.223304994573
-0.510499981996 -0.619043972774 0.205977995172
-0.479585983065 -0.593966973641 0.217547994772
-0.463055983637 -0.572766974374 0.223354994571
0.4903299834 -0.595019973605 0.236949994101
0.460194984441 -0.571501974418 0.226400994466
0.522908982273 -0.619659972753 0.219405994708
0.576147980432 -0.625835972539 0.209325995056
0.613500979141 -0.606413973211 0.221392994639
0.645796978024 -0.571581974415 0.234300994193
-0.668341976539 -0.531674975795 0.225380994501
-0.450862984058 -0.550383975148 0.232662994249
-0.383388986391 -0.553151975052 0.227237994437
-0.330279988228 -0.554199975016 0.225176994508
-0.278889990004 -0.554561975004 0.224455994533
-0.228055991762 -0.554703974999 0.224171994543
-0.177414993513 -0.554787974996 0.224003994549
-0.126827995262 -0.554851974994 0.223875994553
-0.0762549970106 -0.554899974992 0.223777994556
-0.0256839987591 -0.554930974991 0.223716994558
0.0248869994924 -0.554939974991 0.223697994559
0.0754579977439 -0.554927974991 0.223722994558
0.126029995995 -0.554899974992 0.223777994556
0.176609994247 -0.554864974993 0.223849994554
0.227211992497 -0.554827974994 0.223922994551
0.277860990746 -0.554785974996 0.224007994548
0.328551988993 -0.554698974999 0.224176994543
0.379460987233 -0.554448975008 0.224636994527
0.447988984863 -0.55409297502 0.225282994504
0.667675977268 -0.532771975757 0.226924994448
-0.673402976364 -0.49886097693 0.246275993778
0.672978977084 -0.502086976818 0.244173993851
-0.658578976877 -0.426876979418 0.20025599537
-0.674722976318 -0.44622297875 0.254371993499
-0.611930978489 -0.428524979361 0.197403995468
-0.557979980355 -0.42884897935 0.196796995489
-0.504650982199 -0.428880979349 0.196734995491
-0.452956983986 -0.428909979348 0.196681995493
-0.402073985745 -0.428909979348 0.196681995493
-0.351430987496 -0.42885097935 0.19678599549
-0.300828989246 -0.428758979353 0.196945995484
-0.250233990995 -0.428668979356 0.197100995479
-0.199648992744 -0.428594979359 0.197228995474
-0.149073994493 -0.428535979361 0.197328995471
-0.0985039962413 -0.428490979363 0.197406995468
-0.0479359979897 -0.428459979364 0.197459995466
0.00263100026189 -0.428447979364 0.197481995466
0.0531989985135 -0.428454979364 0.197468995466
0.103765996765 -0.428479979363 0.197425995468
0.154332995017 -0.428518979362 0.19735899547
0.204899993268 -0.42856497936 0.197278995473
0.25546799152 -0.428613979358 0.197195995475
0.306037989771 -0.428654979357 0.197123995478
0.356623988022 -0.428688979356 0.19706599548
0.407291986271 -0.428719979355 0.197009995482
0.458324984506 -0.428717979355 0.197007995482
0.510715982695 -0.428502979362 0.19736499547
0.567194980742 -0.427597979393 0.198871995418
0.654790977713 -0.424996979483 0.203259995266
0.674706977025 -0.456112978408 0.24189399393
-0.655555976981 -0.409106980033 0.227993994411
-0.579773979601 -0.409077980034 0.228098994407
-0.524776981503 -0.40890698004 0.228381994397
-0.472527983309 -0.408844980042 0.228476994394
-0.421452985075 -0.408836980042 0.228490994393
-0.370761986828 -0.408797980044 0.228547994391
-0.320166988577 -0.408724980046 0.228653994388
-0.269589990326 -0.408647980049 0.228766994384
-0.219017992075 -0.408583980051 0.228859994381
-0.168446993823 -0.408534980053 0.228930994378
-0.117878995571 -0.408497980054 0.228984994376
-0.0673109973198 -0.408470980055 0.229024994375
-0.0167429990682 -0.408455980055 0.229046994374
0.0338249991833 -0.408453980055 0.229048994374
0.0843929974349 -0.408465980055 0.229031994375
0.134960995687 -0.408489980054 0.228996994376
0.185528993938 -0.408520980053 0.228952994377
0.23609599219 -0.408554980052 0.228902994379
0.286664990441 -0.408585980051 0.228856994381
0.337237988693 -0.40861198005 0.228817994382
0.387846986943 -0.408638980049 0.228778994383
0.438620985187 -0.408652980049 0.228756994384
0.490067983409 -0.408538980052 0.228916994379
0.54352898156 -0.407954980073 0.22975899435
0.600297979597 -0.406261980131 0.232237994264
0.657423977622 -0.402894980248 0.236915994102
-0.656875976935 0.42435999115 0.204182995234
-0.657829976902 0.403430991873 0.236018994133
-0.671123976443 0.441857990545 0.225546994495
-0.577867979667 0.426940991061 0.199935995381
-0.598303978961 0.406035991783 0.232469994256
-0.524135981525 0.428189991017 0.197870995452
-0.546489980752 0.407723991725 0.230062994339
-0.472380983314 0.428620991002 0.197142995477
-0.494968982533 0.4084319917 0.229047994374
-0.421449985075 0.428713990999 0.196985995483
-0.443999984296 0.408620991694 0.228776994384
-0.370791986827 0.428707990999 0.196999995482
-0.393309986048 0.408634991693 0.228756994384
-0.320193988576 0.428672991001 0.19706099548
-0.342712987798 0.408614991694 0.228786994383
-0.269605990325 0.428622991002 0.197146995477
-0.292135989546 0.408584991695 0.228829994382
-0.219023992074 0.428567991004 0.197242995474
-0.241564991295 0.408548991696 0.22888299438
-0.168450993823 0.428514991006 0.197332995471
-0.190995993043 0.408511991698 0.228936994378
-0.117881995571 0.428471991008 0.197407995468
-0.140426994792 0.408476991699 0.228986994376
-0.0673139973197 0.428440991009 0.197459995466
-0.0898589965402 0.4084509917 0.229024994375
-0.0167459990681 0.428428991009 0.197480995466
-0.0392909982886 0.4084369917 0.229047994374
0.0338209991835 0.428435991009 0.197468995466
0.011276999963 0.4084349917 0.229048994374
0.0843879974351 0.428461991008 0.197423995468
0.0618439982146 0.4084479917 0.229030994375
0.134955995687 0.428501991007 0.19735499547
0.112412996466 0.408471991699 0.228995994376
0.185522993938 0.428554991005 0.197263995473
0.162979994718 0.408506991698 0.228944994378
0.23609099219 0.428620991002 0.197149995477
0.213546992969 0.408550991696 0.22887999438
0.286659990441 0.428700991 0.197011995482
0.264114991221 0.408609991694 0.228794994383
0.337237988693 0.428786990997 0.196863995487
0.314685989472 0.408680991692 0.228689994387
0.387862986942 0.428855990994 0.196742995491
0.365272987723 0.408752991689 0.22858599439
0.438694985185 0.428910990992 0.196644995495
0.415940985972 0.408802991688 0.228511994393
0.4903129834 0.429076990987 0.196350995505
0.466931984209 0.408857991686 0.228427994396
0.544154981539 0.429718990964 0.195227995544
0.51895098241 0.409083991678 0.228084994407
0.601556979554 0.431267990911 0.192559995636
0.573542980522 0.409737991655 0.227064994443
0.658216977595 0.431741990895 0.191302995679
0.655813977678 0.410709991622 0.225533994496
0.671033977152 0.434938990784 0.238508994047
-0.677466976223 0.490478988864 0.231710994282
0.677104976942 0.491235988838 0.234769994176
-0.66483597666 0.538208987213 0.242847993897
0.663624977408 0.54495398698 0.235364994156
-0.638458977572 0.571151986074 0.254739993486
-0.454459983934 0.568705986159 0.216466994809
-0.447074984189 0.555981986599 0.221254994644
-0.400004985817 0.554643986645 0.22423799454
-0.347717987625 0.554546986648 0.224438994534
-0.295774989421 0.554652986645 0.224232994541
-0.244684991187 0.554735986642 0.224069994546
-0.193968992941 0.55479298664 0.22395399455
-0.14336499469 0.554841986638 0.223855994554
-0.092787996439 0.554883986637 0.223772994557
-0.0422169981875 0.554911986636 0.223715994559
0.00835400006402 0.554919986636 0.223699994559
0.0589249983155 0.554905986636 0.223727994558
0.109498996567 0.554870986637 0.223797994556
0.160087994818 0.554821986639 0.223896994552
0.210748993066 0.554766986641 0.224008994548
0.261682991305 0.554711986643 0.224118994545
0.313459989515 0.554597986647 0.224338994537
0.367954987631 0.553991986668 0.225514994496
0.447646984875 0.550933986773 0.231590994286
0.462863984349 0.571298986069 0.235697994144
0.635240978389 0.584029985629 0.236812994106
-0.611953978489 0.602742984982 0.234174994197
-0.569184979967 0.623078984279 0.222079994615
-0.554083980489 0.636960983799 0.187538995809
-0.518548981718 0.621046984349 0.213518994911
-0.517725981747 0.633367983923 0.179301996094
-0.485586982858 0.593678985295 0.234887994172
0.477490983843 0.593080985316 0.223186994577
0.512420982636 0.618857984425 0.215935994828
0.539836981688 0.636551983813 0.186986995828
0.56580598079 0.624967984214 0.218355994744
0.574947980474 0.635950983834 0.186276995853
0.59848597966 0.604377984926 0.245013993822
-0.627580977948 -0.574584974311 0.261325993258
-0.601176978861 -0.585485973934 0.273235992846
-0.566481980061 -0.599802973439 0.265567993111
-0.517237981763 -0.601322973387 0.251116993611
-0.476653983167 -0.576203974255 0.248046993717
-0.500944982327 -0.577473974211 0.279041992646
0.48365098363 -0.580526974106 0.255281993467
0.499031983099 -0.584586973966 0.266863993067
0.524954982202 -0.598589973481 0.262198993228
0.568077980711 -0.607059973189 0.253604993525
0.609726979271 -0.590072973776 0.257382993394
0.588238980014 -0.585879973921 0.283086992506
-0.613099978449 -0.564301974667 0.299960991922
-0.653065977067 -0.542154975433 0.268717993003
-0.46905098343 -0.551417975112 0.278480992665
-0.451652984031 -0.530289975843 0.268322993016
-0.451123984049 -0.516059976335 0.290837992238
-0.399842985822 -0.534690975691 0.261180993263
-0.347404987635 -0.536236975637 0.258543993354
-0.295656989425 -0.536713975621 0.257723993383
-0.244648991188 -0.536865975616 0.257460993392
-0.193955992941 -0.536952975612 0.257310993397
-0.14335899469 -0.53702597561 0.257182993401
-0.0927839964391 -0.537086975608 0.257077993405
-0.0422129981876 -0.537129975606 0.257003993408
0.00835700006391 -0.537148975606 0.256969993409
0.0589279983154 -0.537141975606 0.256980993408
0.109499996567 -0.537113975607 0.257029993407
0.160077994818 -0.537074975608 0.257097993404
0.210682993068 -0.53703497561 0.257166993402
0.261360991316 -0.536998975611 0.2572299934
0.312107989562 -0.536951975613 0.257311993397
0.362414987822 -0.536834975617 0.25750899339
0.410106986173 -0.53645197563 0.258164993367
0.448191984856 -0.534026975714 0.262087993232
0.477938983828 -0.560997974781 0.28411999247
0.619475978934 -0.569723974479 0.283693992485
0.652350977798 -0.53789597558 0.278096992678
-0.668781976524 -0.4939279771 0.288189992329
-0.415214985291 -0.51560897635 0.291728992207
-0.365056987025 -0.516834976308 0.28990099227
-0.313210988818 -0.51736597629 0.289096992298
-0.26195999059 -0.517527976284 0.288850992306
-0.211167992346 -0.517604976281 0.28873399231
-0.160543994096 -0.517676976279 0.288624992314
-0.109963995845 -0.517743976277 0.288522992318
-0.0593929975936 -0.517796976275 0.288441992321
-0.00882299934208 -0.517827976274 0.288394992322
0.0417469989094 -0.517831976274 0.288388992322
0.0923179971609 -0.517808976274 0.288423992321
0.142893995412 -0.517766976276 0.288487992319
0.193497993663 -0.517715976278 0.288565992316
0.244208991909 -0.51765597628 0.288656992313
0.295209990146 -0.517564976283 0.288794992308
0.346550988371 -0.517404976288 0.2890349923
0.396622986639 -0.517268976293 0.289210992294
0.448528984845 -0.51793697627 0.288015992335
0.668010977256 -0.495128977059 0.29019899226
-0.674573976324 -0.449182978647 0.299845991926
0.674341977037 -0.453288978505 0.296891992028
-0.657773976904 -0.388752980737 0.255706993452
-0.673489976361 -0.398803980389 0.30696499168
-0.603952978765 -0.387931980765 0.256801993415
-0.548435980685 -0.38721898079 0.257672993384
-0.495421982518 -0.3869259808 0.258043993372
-0.444066984293 -0.386847980802 0.258144993368
-0.393298986049 -0.386810980804 0.258191993366
-0.342687987799 -0.386757980806 0.258258993364
-0.292111989547 -0.386699980808 0.258330993362
-0.241541991296 -0.386652980809 0.25838999336
-0.190973993044 -0.38661898081 0.258431993358
-0.140405994793 -0.386593980811 0.258462993357
-0.089836996541 -0.386576980812 0.258484993356
-0.0392689982894 -0.386564980812 0.258499993356
0.0112989999622 -0.386559980812 0.258506993356
0.0618679982138 -0.386561980812 0.258502993356
0.112435996465 -0.386571980812 0.258490993356
0.163003994717 -0.386585980811 0.258472993357
0.213571992969 -0.386603980811 0.258451993358
0.26413999122 -0.38662098081 0.258429993358
0.314709989472 -0.38663798081 0.258408993359
0.365291987723 -0.386657980809 0.25838299336
0.415939985972 -0.386679980808 0.258353993361
0.46688498421 -0.38664298081 0.258397993359
0.518919982411 -0.38633198082 0.258776993346
0.573995980507 -0.385276980857 0.260047993302
0.654803977713 -0.382788980943 0.263024993199
0.673529977065 -0.409028980036 0.296309992049
-0.655122976996 -0.365655981535 0.282790992516
-0.57516997976 -0.364096981589 0.284547992455
-0.520379981655 -0.363361981614 0.285375992427
-0.468485983449 -0.363120981623 0.285643992417
-0.417574985209 -0.363060981625 0.285709992415
-0.36693198696 -0.363033981626 0.285739992414
-0.316349988709 -0.363003981627 0.285772992413
-0.265778990458 -0.362976981628 0.285801992412
-0.215210992206 -0.362957981628 0.285821992411
-0.164642993955 -0.362946981629 0.285833992411
-0.114073995703 -0.362938981629 0.28584299241
-0.0635059974514 -0.362932981629 0.28584899241
-0.0129369991998 -0.362928981629 0.28585299241
0.0376309990518 -0.362927981629 0.28585399241
0.0881989973033 -0.362928981629 0.28585399241
0.138767995555 -0.362930981629 0.28585099241
0.189335993806 -0.362933981629 0.28584799241
0.239903992058 -0.362936981629 0.28584499241
0.29047299031 -0.362936981629 0.28584499241
0.341045988561 -0.362936981629 0.28584399241
0.391644986812 -0.362940981629 0.285839992411
0.442368985058 -0.362927981629 0.28585199241
0.493603983286 -0.362786981634 0.285999992405
0.546408981461 -0.362229981654 0.286589992385
0.601757979547 -0.360783981704 0.288147992331
0.657380977624 -0.358315981789 0.290647992244
-0.615315978372 0.383123992576 0.262691993211
-0.628292977924 0.358678993421 0.290150992262
-0.661322976782 0.379778992691 0.266928993064
-0.568919979977 0.385248992502 0.2601019933
-0.590630979226 0.360939993343 0.287945992338
-0.518983981703 0.386270992467 0.258839993344
-0.54335498086 0.362265993297 0.286543992386
-0.468304983455 0.386609992455 0.258418993359
-0.493276982592 0.362784993279 0.285987992405
-0.417638985207 0.386665992453 0.258349993361
-0.442688984341 0.362916993274 0.28584599241
-0.367036986957 0.386649992454 0.25836999336
-0.392084986091 0.362927993274 0.285832992411
-0.316460988705 0.386629992454 0.258395993359
-0.34150398784 0.362923993274 0.285837992411
-0.265890990454 0.386610992455 0.258418993359
-0.290932989588 0.362922993274 0.285838992411
-0.215321992202 0.386590992456 0.258443993358
-0.240364991336 0.362921993274 0.285840992411
-0.164753993951 0.386571992456 0.258467993357
-0.189796993085 0.362917993274 0.28584399241
-0.114185995699 0.386555992457 0.258486993356
-0.139228994833 0.362913993274 0.28584899241
-0.0636179974475 0.386544992457 0.258500993356
-0.0886599965817 0.362910993274 0.28585199241
-0.0130499991959 0.386540992457 0.258505993356
-0.0380919983301 0.362908993274 0.28585399241
0.0375189990556 0.386543992457 0.258501993356
0.0124769999215 0.362909993274 0.28585299241
0.0880869973072 0.386553992457 0.258488993356
0.0630449981731 0.362912993274 0.28585099241
0.138654995559 0.386570992456 0.258468993357
0.113613996425 0.362916993274 0.28584499241
0.18922299381 0.386592992456 0.258439993358
0.164181994676 0.362924993274 0.285837992411
0.239790992062 0.386624992454 0.258400993359
0.214749992928 0.362934993274 0.285825992411
0.290358990314 0.386668992453 0.258345993361
0.265317991179 0.362952993273 0.285807992412
0.340932988565 0.386724992451 0.258276993364
0.315886989431 0.362977993272 0.285780992413
0.391530986816 0.386775992449 0.258211993366
0.366462987682 0.363005993271 0.285749992414
0.442227985063 0.386814992448 0.258161993368
0.417064985933 0.36302999327 0.285723992415
0.493234983299 0.386905992445 0.258046993372
0.467731984181 0.363078993269 0.285671992416
0.544862981514 0.387239992433 0.257618993386
0.518411982429 0.363292993261 0.285441992424
0.596771979719 0.388067992405 0.256558993423
0.568304980704 0.363977993237 0.28469999245
0.65692197764 0.389430992357 0.254650993489
0.614480979107 0.365581993182 0.282944992511
0.66125197749 0.368980993065 0.279476992631
-0.677584976219 0.436900990716 0.279009992647
0.677581976925 0.434429990802 0.284552992455
-0.672442976397 0.488736988924 0.288667992313
0.671857977123 0.49262398879 0.286262992396
-0.64863697722 0.533515987376 0.299206991948
-0.447668984169 0.539659987163 0.252448993565
-0.455663983892 0.535657987302 0.280449992597
-0.447481984175 0.515088988013 0.292272992188
-0.387698986242 0.518081987909 0.287940992338
-0.369120986885 0.537543987236 0.256199993435
-0.33280698814 0.517874987916 0.288283992326
-0.314096988787 0.537062987253 0.257075993405
-0.280127989962 0.517690987923 0.288571992316
-0.262159990583 0.536974987256 0.2572369934
-0.228869991734 0.517658987924 0.288621992314
-0.211222992344 0.536987987256 0.2572169934
-0.178127993488 0.517688987923 0.288577992316
-0.160570994095 0.537028987254 0.257145993403
-0.127523995238 0.517735987921 0.288505992318
-0.109984995844 0.537074987253 0.257065993405
-0.0769479969866 0.51778198792 0.288436992321
-0.0594129975929 0.537111987251 0.257000993408
-0.0263779987351 0.517809987919 0.288393992322
-0.00884199934143 0.537129987251 0.256969993409
0.0241919995164 0.517811987919 0.288389992322
0.0417279989101 0.537121987251 0.256984993408
0.0747629977679 0.517786987919 0.288427992321
0.0922999971616 0.537088987252 0.257041993406
0.125338996019 0.517739987921 0.288499992319
0.142880995413 0.537037987254 0.257129993403
0.175945994269 0.517680987923 0.288588992316
0.193507993662 0.536978987256 0.2572319934
0.226690992515 0.517627987925 0.288669992313
0.244311991906 0.536932987258 0.257311993397
0.277907990744 0.517597987926 0.288713992311
0.295580990133 0.536909987258 0.257351993396
0.330165988937 0.517619987925 0.288683992312
0.347291988345 0.53684798726 0.257462993392
0.382501987128 0.518012987912 0.288095992333
0.39602198666 0.536411987276 0.258207993366
0.417226985927 0.521721987783 0.282159992538
0.424162985687 0.533278987384 0.263269993191
0.447421984883 0.522828987745 0.280440992597
0.64679997799 0.543911987016 0.287236992362
-0.617545978295 0.567615986197 0.292887992167
-0.611360978509 0.586465985545 0.265916993099
-0.591815979185 0.583373985652 0.288289992326
-0.465380983556 0.562246986382 0.257888993377
-0.494051982565 0.581305985723 0.269252992984
-0.481235983008 0.556455986582 0.296610992038
0.468190984165 0.558976986495 0.27226199288
0.483450983637 0.581921985702 0.254839993482
0.50129998302 0.580082985766 0.280312992602
0.621469978865 0.578244985829 0.268898992996
0.596261979737 0.589419985443 0.275054992783
0.606799979373 0.567097986215 0.30580799172
-0.579286979618 0.601321985031 0.262789993208
-0.530234981314 0.603399984959 0.258893993342
0.511064982683 0.597834985152 0.257080993405
0.555202981157 0.606099984866 0.260094993301
-0.578304979652 -0.58214797405 0.292826992169
-0.538875981015 -0.584547973967 0.291166992226
0.515951982514 -0.581245974081 0.287558992351
0.551855981272 -0.586947973884 0.290883992236
-0.605610978708 -0.54424797536 0.335236990703
-0.64316097741 -0.521151976159 0.322605991139
-0.562913980184 -0.564865974647 0.325916991025
-0.507145982112 -0.559827974822 0.3150739914
-0.473529983275 -0.536094975642 0.309147991605
-0.46325398363 -0.518781976241 0.315113991398
0.491226983369 -0.542854975408 0.326863990992
0.463502984327 -0.519459976217 0.321630991173
0.52242798229 -0.564256974668 0.320609991208
0.57796398037 -0.567868974544 0.318974991265
0.621748978856 -0.547993975231 0.315029991401
0.642035978154 -0.51504097637 0.333828990751
-0.664240976681 -0.479161977611 0.325017991056
-0.450713984064 -0.494617977076 0.321297991185
-0.385661986313 -0.495939977031 0.319573991244
-0.331711988178 -0.49653897701 0.318787991271
-0.279742989975 -0.496716977004 0.31855199128
-0.228708991739 -0.496774977002 0.318473991282
-0.178020993492 -0.496826977 0.318404991285
-0.127427995241 -0.496883976998 0.318328991287
-0.0768539969899 -0.496933976996 0.31826099129
-0.0262839987384 -0.496968976995 0.318213991291
0.0242859995132 -0.496983976994 0.318194991292
0.0748559977647 -0.496973976995 0.318207991291
0.125429996016 -0.496942976996 0.31824999129
0.176023994267 -0.496893976998 0.318314991288
0.226713992514 -0.496819977 0.318413991284
0.277771990749 -0.496670977005 0.318612991277
0.329876988947 -0.496322977017 0.319072991262
0.383992987076 -0.495605977042 0.320014991229
0.448123984859 -0.494945977065 0.320757991203
0.663587977409 -0.47773197766 0.329463990902
-0.671246976439 -0.442542978877 0.340483990521
0.670959977154 -0.443776978834 0.340831990509
-0.674777976316 -0.399540980364 0.351574990138
0.67484397702 -0.403051980242 0.34774699027
-0.657395976917 -0.342297982343 0.30667499169
-0.673625976356 -0.348115982142 0.357543989931
-0.601836978838 -0.33977798243 0.309156991604
-0.546410980755 -0.338216982484 0.310603991554
-0.493585982581 -0.337625982504 0.311160991535
-0.442346984353 -0.337477982509 0.31130199153
-0.391622986107 -0.33746598251 0.31131499153
-0.341023987856 -0.33746998251 0.31131099153
-0.290450989605 -0.33747098251 0.31131099153
-0.239881991353 -0.33747098251 0.31131099153
-0.189313993102 -0.33747398251 0.31130799153
-0.13874599485 -0.337476982509 0.31130499153
-0.0881779965984 -0.337479982509 0.31130299153
-0.0376089983468 -0.337479982509 0.31130199153
0.0129589999048 -0.337478982509 0.31130299153
0.0635279981564 -0.33747498251 0.31130699153
0.114095996408 -0.33746898251 0.31131299153
0.16466399466 -0.33746098251 0.31132099153
0.215231992911 -0.33744798251 0.311331991529
0.265800991163 -0.337427982511 0.311350991529
0.316370989414 -0.337398982512 0.311377991528
0.366953987665 -0.337365982513 0.311406991527
0.417596985914 -0.337335982514 0.311434991526
0.468506984154 -0.337269982517 0.311493991524
0.52039198236 -0.337002982526 0.311734991515
0.575143980467 -0.336173982555 0.31246899149
0.6551749777 -0.334423982615 0.314017991436
0.673573977064 -0.358610981779 0.347125990292
-0.654923977003 -0.314661983298 0.331160990844
-0.5740359798 -0.311675983402 0.333650990757
-0.518909981706 -0.310402983446 0.334705990721
-0.466864983505 -0.310023983459 0.33501699071
-0.415917985267 -0.30997998346 0.335054990709
-0.365269987018 -0.310008983459 0.33503199071
-0.314687988767 -0.310034983458 0.33501199071
-0.264117990515 -0.310055983458 0.334994990711
-0.213549992264 -0.310076983457 0.334977990712
-0.162981994012 -0.310098983456 0.334959990712
-0.11241399576 -0.310116983455 0.334945990713
-0.0618459975088 -0.310128983455 0.334935990713
-0.0112779992572 -0.310132983455 0.334933990713
0.0392909989944 -0.310125983455 0.334938990713
0.089858997246 -0.310110983456 0.334949990713
0.140427995498 -0.310088983456 0.334967990712
0.190995993749 -0.310057983457 0.334992990711
0.241563992001 -0.310015983459 0.33502699071
0.292133990252 -0.309956983461 0.335073990708
0.342709988504 -0.309884983463 0.335131990706
0.393320986754 -0.309818983466 0.335184990704
0.444087984998 -0.309770983467 0.335220990703
0.495440983223 -0.309669983471 0.3352999907
0.54843998139 -0.309298983484 0.33559199069
0.603908979472 -0.308431983514 0.336301990666
0.657931977605 -0.307356983551 0.337103990638
-0.615292978373 0.334566994254 0.313956991438
-0.657853976902 0.306578995222 0.337592990621
-0.661422976778 0.33123599437 0.317203991326
-0.568893979977 0.336312994194 0.312360991494
-0.598270978962 0.308341995161 0.336321990665
-0.518972981703 0.337050994169 0.311680991517
-0.546468980753 0.309310995128 0.335563990691
-0.468301983455 0.337276994161 0.311472991524
-0.494960982534 0.309676995115 0.335279990701
-0.417638985207 0.337327994159 0.311425991526
-0.443995984296 0.309764995112 0.335211990704
-0.367036986957 0.337352994158 0.311402991527
-0.393305986048 0.309805995111 0.335179990705
-0.316460988705 0.337382994157 0.311373991528
-0.342708987798 0.309867995108 0.335129990706
-0.265890990454 0.337411994156 0.311347991529
-0.292133989547 0.309939995106 0.335072990708
-0.215322992202 0.337429994155 0.311330991529
-0.241564991295 0.309997995104 0.33502599071
-0.164754993951 0.337442994155 0.31131999153
-0.190995993043 0.310039995102 0.334992990711
-0.114186995699 0.337450994155 0.31131099153
-0.140427994792 0.310070995101 0.334967990712
-0.0636179974475 0.337455994154 0.31130699153
-0.0898599965402 0.310092995101 0.334949990713
-0.0130499991959 0.337459994154 0.31130299153
-0.0392909982886 0.3101069951 0.334938990713
0.0375189990556 0.337460994154 0.31130199153
0.011276999963 0.3101129951 0.334933990713
0.0880869973072 0.337459994154 0.31130299153
0.0618449982145 0.3101099951 0.334936990713
0.138655995559 0.337455994154 0.31130699153
0.112412996466 0.3100979951 0.334945990713
0.18922399381 0.337452994155 0.31130999153
0.162980994718 0.310079995101 0.334960990712
0.239791992062 0.337449994155 0.31131299153
0.213548992969 0.310057995102 0.334977990712
0.290359990314 0.337448994155 0.31131299153
0.264116991221 0.310035995103 0.334995990711
0.340929988565 0.337447994155 0.31131499153
0.314685989472 0.310013995103 0.33501299071
0.391510986816 0.337441994155 0.31131999153
0.365260987724 0.309989995104 0.33503299071
0.442113985067 0.337450994155 0.31131299153
0.415859985974 0.309962995105 0.335054990709
0.492702983317 0.33758199415 0.311192991534
0.466525984223 0.310006995104 0.33502099071
0.542777981586 0.338111994132 0.310702991551
0.517235982469 0.310362995091 0.33474099072
0.589991979954 0.339459994085 0.309435991595
0.567285980739 0.311479995053 0.33385299075
0.627428978659 0.341597994011 0.30725499167
0.613760979132 0.313816994972 0.331973990815
0.661165977493 0.317902994831 0.328826990924
-0.67671097625 0.383742992554 0.327174990981
0.676930976948 0.379332992707 0.332871990784
-0.675583976289 0.436825990719 0.335876990681
0.675369977002 0.43882599065 0.335773990684
-0.659198976855 0.483818989094 0.342649990446
0.65864397758 0.490917988848 0.335500990694
-0.632393977782 0.517177987941 0.348572990242
-0.457857983817 0.517580987927 0.313589991451
-0.447793984165 0.500072988532 0.313754991445
-0.404285985669 0.498053988602 0.316697991344
-0.352345987465 0.497308988628 0.317724991308
-0.299476989293 0.496923988641 0.31824799129
-0.247883991076 0.496823988644 0.318382991285
-0.197009992835 0.496835988644 0.318366991286
-0.146371994586 0.496876988642 0.318312991288
-0.0957899963352 0.496919988641 0.31825499129
-0.0452179980837 0.49695098864 0.318211991291
0.00535200016781 0.496964988639 0.318194991292
0.0559219984193 0.49695298864 0.318209991291
0.106494996671 0.496920988641 0.31825299129
0.157084994922 0.496874988643 0.318314991288
0.207766993169 0.496825988644 0.318379991285
0.258834991404 0.496769988646 0.318454991283
0.311190989593 0.496632988651 0.318633991277
0.367251987655 0.496204988666 0.319183991258
0.4469319849 0.495236988699 0.320475991213
0.462432984364 0.519196987871 0.321676991171
0.631653978513 0.528307987556 0.334769990719
-0.618338978268 0.546752986918 0.324142991086
-0.578922979631 0.566489986236 0.323279991116
-0.554707980468 0.586534985543 0.293993992129
-0.523442981549 0.56261098637 0.325452991041
-0.517322981761 0.581002985734 0.290913992235
-0.485568982858 0.536931987258 0.330266990874
0.473396983985 0.541376987104 0.308317991633
0.506769982831 0.563263986347 0.314871991407
0.536844981791 0.586623985539 0.291775992205
0.56147398094 0.566829986224 0.327357990975
0.574356980494 0.58544298558 0.293468992147
0.602127979534 0.546561986925 0.339219990565
-0.618916978248 -0.519794976206 0.356200989978
-0.579438979613 -0.536300975635 0.361215989804
-0.530551981303 -0.540343975495 0.355643989997
-0.483097982944 -0.525837975997 0.339323990561
0.489522983427 -0.528145975917 0.344966990366
0.513086982613 -0.536395975632 0.353424990074
0.554252981189 -0.544033975368 0.356029989984
0.599407979628 -0.537866975581 0.350250990184
-0.599670978913 -0.507359976636 0.387337988901
-0.64489497735 -0.481045977546 0.371270989457
-0.553356980515 -0.516865976307 0.38909698884
-0.505171982181 -0.511250976501 0.378532989206
-0.469134983427 -0.493368977119 0.360148989841
-0.451256984045 -0.471162977887 0.35036599018
-0.460586983722 -0.472204977851 0.369258989526
-0.407805985547 -0.473243977815 0.348124990257
-0.35247198746 -0.474142977784 0.347055990294
-0.299052989307 -0.474418977775 0.346727990305
-0.247452991091 -0.474468977773 0.346668990307
-0.196604992849 -0.474489977772 0.346643990308
-0.1459759946 -0.474520977771 0.346607990309
-0.0953959963488 -0.47455397777 0.346567990311
-0.0448249980973 -0.474581977769 0.346534990312
0.00574400015426 -0.474597977768 0.346514990313
0.0563139984058 -0.474600977768 0.346512990313
0.106885996657 -0.474586977769 0.346528990312
0.157467994908 -0.47455697777 0.346563990311
0.208109993157 -0.474498977772 0.346633990309
0.259011991397 -0.474351977777 0.346806990303
0.310826989606 -0.473943977791 0.347286990286
0.365340987721 -0.472840977829 0.348560990242
0.446701984908 -0.470144977922 0.351682990134
0.458104984514 -0.472691977834 0.370417989486
0.486393983536 -0.507694976624 0.36945098952
0.530908981996 -0.518609976247 0.384333989005
0.576809980409 -0.51938397622 0.38389698902
0.616764979028 -0.509011976579 0.37234698942
0.644321978075 -0.47339497781 0.381205989113
-0.664959976656 -0.431386979262 0.377017989258
-0.450278984079 -0.448647978666 0.375488989311
-0.377492986595 -0.44996797862 0.374136989358
-0.321059988546 -0.450478978602 0.373609989376
-0.26831199037 -0.450577978599 0.373507989379
-0.217107992141 -0.450575978599 0.373509989379
-0.166392993894 -0.450575978599 0.373510989379
-0.115796995643 -0.450585978599 0.37349998938
-0.065223997392 -0.450598978598 0.37348598938
-0.0146539991405 -0.450610978598 0.373473989381
0.035915999111 -0.450618978598 0.373465989381
0.0864859973626 -0.450619978597 0.373464989381
0.137060995614 -0.450611978598 0.373472989381
0.187662993864 -0.450583978599 0.37350298938
0.23839999211 -0.450487978602 0.373603989376
0.289629990339 -0.450180978613 0.373925989365
0.342157988523 -0.449320978642 0.374829989334
0.396185986655 -0.447269978713 0.376979989259
0.447843984868 -0.443449978845 0.38071498913
0.665197977353 -0.428470979363 0.37955598917
-0.670844976452 -0.392721980599 0.392419988726
0.671398977139 -0.39212098062 0.390903988778
-0.674369976331 -0.348829982117 0.402039988393
0.674756977023 -0.351516982024 0.397592988547
-0.65761297691 -0.288563984201 0.351261990149
-0.674938976311 -0.293763984021 0.404794988298
-0.600402978888 -0.283867984363 0.354636990032
-0.543535980854 -0.281384984449 0.356329989973
-0.490049982703 -0.280542984478 0.356912989953
-0.438599984482 -0.280381984484 0.357026989949
-0.387824986238 -0.280404984483 0.35701298995
-0.337215987988 -0.280443984481 0.356985989951
-0.286641989736 -0.28048298448 0.356959989952
-0.236073991485 -0.280528984478 0.356928989953
-0.185506993233 -0.280578984477 0.356894989954
-0.134938994982 -0.280622984475 0.356863989955
-0.0843719967299 -0.280657984474 0.356839989956
-0.0338029984784 -0.280675984473 0.356827989956
0.0167639997732 -0.280673984473 0.356829989956
0.0673319980248 -0.280650984474 0.356844989956
0.117899996276 -0.280610984476 0.356871989955
0.168468994528 -0.280556984477 0.356908989953
0.219039992779 -0.28048498448 0.356957989952
0.269611991031 -0.280392984483 0.357021989949
0.320188989282 -0.280279984487 0.357098989947
0.370783987533 -0.280173984491 0.357171989944
0.42147498578 -0.280116984493 0.357210989943
0.472548984014 -0.280103984493 0.357217989943
0.524792982208 -0.280007984496 0.357278989941
0.579768980307 -0.279726984506 0.357449989935
0.655769977679 -0.279633984509 0.357468989934
0.674979977015 -0.306150983593 0.394741988645
-0.655047976999 -0.254897985365 0.373370989384
-0.567240980035 -0.250498985517 0.375971989294
-0.510705981989 -0.248990985569 0.376877989263
-0.458304983801 -0.248633985581 0.377091989255
-0.407269985566 -0.248634985581 0.377093989255
-0.356601987318 -0.248691985579 0.377062989256
-0.306015989067 -0.248749985577 0.377028989258
-0.255445990815 -0.248821985575 0.376987989259
-0.204877992563 -0.248904985572 0.376938989261
-0.154310994312 -0.248984985569 0.376892989262
-0.10374399606 -0.249051985567 0.376854989264
-0.0531769978085 -0.249094985565 0.376828989265
-0.00260899955693 -0.249106985565 0.376821989265
0.0479579986947 -0.249085985566 0.376833989264
0.0985259969463 -0.249032985567 0.376864989263
0.149095995198 -0.24895498557 0.376909989262
0.199670993449 -0.248854985574 0.37696898926
0.2502549917 -0.248726985578 0.377042989257
0.300850989951 -0.248570985583 0.377132989254
0.351452988201 -0.248411985589 0.377224989251
0.40209598645 -0.248307985593 0.377283989249
0.452977984691 -0.248307985593 0.377283989249
0.504672982904 -0.248360985591 0.37725398925
0.55799698106 -0.248424985588 0.377220989251
0.611938979195 -0.249036985567 0.376893989262
0.658897977571 -0.251917985468 0.37523098932
-0.657061976929 0.278021996209 0.358523989897
-0.659365976849 0.245999997317 0.378424989209
-0.671160976442 0.290498995778 0.381243989112
-0.577867979667 0.27917599617 0.357788989923
-0.610236978548 0.2464719973 0.378329989213
-0.524126981525 0.279855996146 0.357365989938
-0.557042980387 0.247559997263 0.377699989234
-0.472362983315 0.280058996139 0.357234989942
-0.504280982211 0.248113997244 0.377382989245
-0.421421985076 0.280094996138 0.357211989943
-0.452855983989 0.248236997239 0.377313989248
-0.370759986828 0.280154996136 0.357171989944
-0.402052985746 0.248278997238 0.377290989249
-0.320169988577 0.280261996132 0.357097989947
-0.351427987496 0.248390997234 0.377225989251
-0.269593990326 0.280374996128 0.357021989949
-0.300828989246 0.248551997228 0.377132989254
-0.219021992074 0.280467996125 0.356957989952
-0.250233990995 0.248708997223 0.377042989257
-0.168451993823 0.280537996122 0.356908989953
-0.199648992744 0.248835997219 0.37696898926
-0.117881995571 0.280592996121 0.356871989955
-0.149074994493 0.248936997215 0.376909989262
-0.0673139973197 0.280631996119 0.356844989956
-0.0985049962413 0.249013997212 0.376864989263
-0.0167469990681 0.280654996118 0.356829989956
-0.0479369979897 0.249066997211 0.376833989264
0.0338209991835 0.280656996118 0.356827989956
0.00263100026189 0.24908899721 0.376821989265
0.0843889974351 0.280638996119 0.356839989956
0.0531979985135 0.24907599721 0.376828989265
0.134956995687 0.28060499612 0.356863989955
0.103764996765 0.249031997212 0.376854989264
0.185523993938 0.280558996122 0.356894989954
0.154332995017 0.248965997214 0.376892989262
0.23609199219 0.280509996123 0.356928989953
0.204899993268 0.248885997217 0.376938989261
0.286659990441 0.280463996125 0.356959989952
0.25546699152 0.24880299722 0.376987989259
0.337230988693 0.280426996126 0.356985989951
0.306035989772 0.248731997222 0.377028989258
0.387823986944 0.280390996128 0.35700998995
0.356617988023 0.248675997224 0.377060989257
0.438504985191 0.280372996128 0.357022989949
0.407258986272 0.248623997226 0.377090989256
0.489496983428 0.280525996123 0.356920989953
0.458158984512 0.248618997226 0.377093989255
0.541282981638 0.281245996098 0.35643698997
0.510029982718 0.248892997217 0.376938989261
0.593983979816 0.283058996035 0.355222990012
0.564983980818 0.249905997182 0.37637298928
0.647976977949 0.28581299594 0.353369990076
0.626933978676 0.252479997093 0.375030989327
0.66325997742 0.261248996789 0.370977989467
-0.677608976219 0.335496994222 0.381355989108
0.677853976916 0.328241994473 0.383945989019
-0.675632976287 0.386270992467 0.385942988949
0.675598976994 0.388130992402 0.386362988935
-0.66165197677 0.435541990763 0.390082988806
0.661047977497 0.442782990513 0.385091988979
-0.634722977701 0.478501989278 0.391899988743
-0.447787984165 0.480197989219 0.339618990551
-0.458000983812 0.471334989526 0.371346989454
-0.448083984154 0.45703799002 0.366321989628
-0.402260985739 0.454356990113 0.36943998952
-0.376567986627 0.476239989356 0.344494990383
-0.347499987632 0.451778990202 0.372206989424
-0.321873988518 0.474904989402 0.346121990326
-0.294240989474 0.450817990235 0.373231989389
-0.269609990325 0.474539989415 0.346560990311
-0.242686991256 0.450593990243 0.373470989381
-0.218495992093 0.474489989416 0.346621990309
-0.191849993014 0.450570990244 0.37349698938
-0.167792993846 0.474510989416 0.34659699031
-0.141223994764 0.450579990243 0.37348698938
-0.117196995595 0.474540989415 0.346560990311
-0.0906449965131 0.450588990243 0.37347698938
-0.0666219973437 0.474565989414 0.346531990312
-0.0400739982616 0.450594990243 0.373469989381
-0.0160529990921 0.474579989413 0.346514990313
0.01049599999 0.450596990243 0.373468989381
0.0345169991594 0.474579989413 0.346514990313
0.0610659982415 0.450592990243 0.373472989381
0.0850879974109 0.474565989414 0.346531990312
0.111638996493 0.450584990243 0.37348198938
0.135666995662 0.474540989415 0.346560990311
0.162232994744 0.450574990243 0.37349098938
0.186292993912 0.474510989416 0.34659799031
0.21293799299 0.450555990244 0.373510989379
0.237144992153 0.474463989417 0.346651990308
0.264103991221 0.450456990247 0.373615989376
0.288815990367 0.474305989423 0.346838990301
0.316712989402 0.449964990264 0.374132989358
0.342642988506 0.473681989444 0.347577990276
0.372689987467 0.448215990325 0.375950989295
0.39922098655 0.471941989505 0.349643990205
0.446547984913 0.443469990489 0.380803989127
0.446892984901 0.469166989601 0.352628990101
0.45704998455 0.474604989413 0.368156989564
0.634218978425 0.49059498886 0.379642989167
-0.611757978495 0.510091988186 0.378462989208
-0.597499978988 0.537098987252 0.355305990009
-0.576242979723 0.518589987892 0.387340988901
-0.552940980529 0.542731987057 0.360073989844
-0.530821981294 0.515200988009 0.390084988806
-0.506682982128 0.530643987475 0.359083989878
-0.487890982778 0.497361988626 0.383473989035
-0.469161983426 0.506220988319 0.349530990208
0.470877984072 0.504914988365 0.355487990002
0.491325983365 0.534104987355 0.34225199046
0.509644982732 0.517145987942 0.379016989189
0.533820981896 0.54350298703 0.356644989962
0.555484981147 0.519416987863 0.389999988809
0.579157980328 0.538205987213 0.362962989744
0.597266979702 0.510047988187 0.389540988825
0.613019979157 0.523717987714 0.361161989806
-0.617284978304 -0.475436977739 0.408908988155
-0.575329979755 -0.48960697725 0.416949987877
-0.526212981453 -0.4910349772 0.412642988026
-0.47944598307 -0.476954977687 0.393854988676
0.486464983533 -0.484203977436 0.394795988643
0.512142982645 -0.491154977196 0.406843988227
0.554680981175 -0.496124977024 0.41312598801
0.599084979639 -0.491651977179 0.405738988265
-0.597320978995 -0.458156978337 0.439947987082
-0.64371797739 -0.433220979199 0.422156987697
-0.550111980627 -0.466181978059 0.442553986992
-0.501687982301 -0.459868978278 0.431207987384
-0.466358983523 -0.442556978876 0.411149988078
-0.450450984073 -0.422258979578 0.401468988413
-0.458543983793 -0.420505979639 0.418748987815
-0.40251998573 -0.424022979517 0.400003988463
-0.344756987727 -0.424869979488 0.399198988491
-0.290403989606 -0.425121979479 0.398961988499
